# This PCD file was generated using the MATLAB® pcwrite function
# from Computer Vision System Toolbox®.
# .PCD v.7 - Point Cloud Data file format
VERSION .7
FIELDS x y z
SIZE 4 4 4
TYPE F F F
COUNT 1 1 1
WIDTH 1577
HEIGHT 1
VIEWPOINT 0 0 0 1 0 0 0
POINTS 1577
DATA ascii
-11.824729 5.574446 -0.297164
-11.872957 2.523739 -1.475660
-11.898244 2.689636 -1.322484
-11.902356 2.525434 -1.118689
-11.920780 2.505299 -0.969732
-11.939456 2.623320 -0.974608
-11.830705 2.509161 -0.750633
-11.780726 2.485286 -0.882609
-11.936033 2.590140 -0.760645
-11.711837 2.635291 -0.810354
-11.821989 2.579071 -0.616538
-11.786274 2.627143 -0.672442
-11.948546 2.136740 -1.612218
-11.747124 2.135803 -1.582007
-11.742259 2.140630 -1.368996
-11.802758 2.144259 -0.952054
-11.921345 2.134039 -0.752192
-11.986032 2.178961 -0.680204
-11.892649 2.367994 -0.618871
-11.837815 2.112720 -0.327130
-11.927726 2.227653 -0.263081
-11.877723 -1.976444 -1.693435
-11.796486 -1.952390 -1.591529
-11.959772 -1.934142 -1.385360
-11.993013 -1.976962 -1.176311
-11.993013 -1.976962 -1.176311
-11.927815 -2.054803 -0.931357
-11.736587 -1.993988 -1.067580
-11.933485 -1.852820 -1.008413
-11.904307 -2.098760 -0.855369
-11.974482 -5.491127 -1.758398
-11.728580 -5.495214 -1.725675
-11.821237 -5.620022 -1.499541
-11.713244 -5.558188 -1.667678
-11.837620 -5.453121 -1.677562
-11.906189 -5.657947 -1.442435
-11.970492 -8.481940 -2.231693
-11.889013 -8.524742 -1.893777
-11.945045 -8.465565 -1.690726
-11.904151 -8.441649 -1.788779
-11.704262 -8.443723 -1.767011
-11.998785 -8.485432 -1.534659
-11.849452 -8.468487 -1.519836
-11.873595 -8.510420 -1.432798
-11.707054 -8.465406 -1.318002
-11.896364 -8.526212 -1.150768
-11.738737 -8.586286 -1.141937
-11.858770 -8.421274 -1.236837
-11.845462 -8.642130 -0.977799
-11.890533 -8.560097 -0.976766
-11.937217 -8.569957 -0.808710
-11.880283 -8.558848 -0.620778
-11.752667 -8.639917 -0.617907
-11.866096 -8.674684 -0.352767
-11.724995 -8.678808 -0.436930
-11.934921 -8.569697 -0.441712
-11.711764 -8.650747 -0.347952
-11.959200 -8.647504 -0.166665
-11.915533 -8.565315 0.109265
-11.808897 -8.554246 0.275138
-11.753831 -8.629284 0.275092
-11.867734 -8.454201 0.275182
-11.911381 -8.579073 0.457263
-11.917423 -8.606943 0.642277
-11.976140 -8.621850 0.739349
-11.805150 -8.725966 -0.702826
-11.992349 -8.772771 -0.536597
-11.886292 -8.861520 -0.090698
-11.896370 -8.747550 -0.166714
-11.825443 -8.726450 0.016198
-11.741090 -8.756429 0.109107
-11.925062 -8.767277 0.204324
-11.708000 -8.739324 0.275065
-11.888453 -8.939143 0.459323
-11.880975 -8.744170 0.380268
-11.880495 -8.958018 0.647319
-11.874082 -8.772042 0.572266
-11.903205 -8.947939 0.744343
-11.922554 -8.757897 0.741319
-12.288629 6.267208 -0.087930
-12.264783 6.254085 0.089081
-12.059474 6.274243 0.009309
-12.282542 6.298021 0.175108
-12.119848 6.283094 0.175257
-12.279202 6.245844 0.401059
-12.119506 6.232918 0.399208
-12.268337 6.248663 0.652073
-12.075374 6.237818 0.562257
-12.259222 2.786426 -1.238747
-12.147896 2.877486 -1.228520
-12.136351 2.765280 -0.996643
-12.129155 2.524165 -0.914929
-12.251899 2.655212 -1.004898
-12.127585 2.498045 -0.773959
-12.137736 2.656134 -0.846777
-12.166237 2.209617 -1.562356
-12.127590 2.243921 -0.691272
-12.122634 2.164787 -0.548365
-12.277166 1.955712 -1.796791
-12.195286 2.018751 -1.785625
-12.027446 1.889941 -0.756610
-12.241137 1.957811 -0.696749
-12.144472 1.998858 -0.689596
-12.103294 2.011828 -0.628536
-12.288465 -1.989544 -2.025993
-12.262321 -1.996327 -1.751018
-12.144071 -1.978164 -1.498150
-12.292492 -1.961982 -1.361996
-12.287591 -1.982859 -1.207995
-12.016146 -2.004825 -1.018278
-12.297351 -2.154578 -2.031932
-12.299901 -2.125618 -0.888938
-12.099972 -2.199580 -0.716129
-12.121615 -8.472886 -2.250520
-12.041997 -8.494730 -1.977607
-12.283261 -8.466439 -1.726334
-12.132162 -8.479498 -1.711506
-12.287498 -8.505390 -1.651320
-12.105054 -8.485254 -1.352535
-12.273880 -8.470052 -1.176344
-12.083136 -8.490198 -1.258560
-12.286167 -8.540861 -0.902312
-12.095938 -8.502003 -0.988542
-12.082150 -8.546818 -0.710547
-12.093688 -8.506748 -0.628543
-12.074785 -8.533567 -0.356558
-12.284682 -8.555343 -0.172310
-12.059806 -8.545442 -0.167573
-12.096437 -8.543294 0.015469
-12.103504 -8.575162 0.204485
-12.093364 -8.438092 0.275440
-12.292042 -8.538940 0.383695
-12.067410 -8.558050 0.381439
-12.114815 -8.543838 0.645491
-12.125756 -8.553765 0.742506
-12.086980 -8.858133 -1.091466
-12.094667 -8.843995 -0.903461
-12.070679 -8.836950 -0.826490
-12.013364 -8.797705 -0.450566
-12.450324 6.279138 -0.091082
-12.509153 6.236969 0.086816
-12.470464 6.299935 0.173919
-12.418648 6.266834 0.332939
-12.431259 6.237581 0.656897
-12.549585 2.151553 -1.703832
-12.387670 2.128481 -1.536690
-12.407779 2.210493 -1.541609
-12.332891 2.182557 -1.585565
-12.569174 2.308321 -1.396657
-12.300467 2.225464 -1.445478
-12.341822 1.908682 -1.805918
-12.465208 2.089493 -1.601820
-12.505490 -2.032381 -1.934748
-12.533948 -2.009167 -1.698725
-12.548674 -1.992108 -1.640714
-12.559072 -1.961891 -1.393713
-12.534716 -7.345402 -2.057315
-12.541920 -7.409134 -1.684291
-12.376339 -7.367187 -1.663491
-12.408930 -7.227147 -1.658487
-12.473894 -8.500656 -2.140105
-12.373333 -8.491690 -2.127224
-12.326029 -8.409802 -2.271298
-12.512572 -8.496563 -2.034062
-12.517162 -8.478355 -1.752061
-12.456330 -8.478258 -1.578131
-12.501043 -8.491103 -1.387076
-12.337144 -8.512242 -1.475260
-12.502764 -8.477962 -1.194077
-12.477911 -8.498846 -1.013101
-12.458133 -8.542660 -0.729113
-12.300714 -8.502794 -0.826304
-12.484419 -8.480577 -0.646097
-12.314418 -8.504585 -0.542288
-12.530288 -8.512431 -0.462036
-12.304412 -8.506526 -0.453299
-12.529328 -8.546232 -0.177029
-12.475409 -8.541121 0.010907
-12.302016 -8.514129 0.107700
-12.504233 -8.557972 0.204945
-12.333148 -8.560052 0.204748
-12.569858 -8.438869 0.277992
-12.324227 -8.449986 0.276711
-12.520912 -8.547833 0.385962
-12.507524 -8.519642 0.654940
-12.303921 -8.551798 0.578712
-12.512716 -8.556575 0.753955
-12.355626 -8.566653 0.749775
-12.860005 6.304013 -0.171472
-12.763552 6.304055 -0.168374
-12.893434 6.419762 0.173612
-12.714005 2.141500 -1.729017
-12.730043 2.259256 -1.415887
-12.698463 -1.980187 -1.816558
-12.804265 -1.997951 -1.585440
-12.685230 -1.971060 -1.659575
-12.643169 -1.975922 -1.471619
-12.881675 -6.862052 -1.894037
-12.682083 -6.794237 -2.037280
-12.877386 -6.847898 -1.688045
-12.778954 -6.853012 -1.781156
-12.675276 -6.847971 -1.665275
-12.652922 -7.110184 -1.882237
-12.850249 -6.904122 -1.961062
-12.651608 -6.957202 -1.938275
-12.833453 -6.935009 -1.792074
-12.636734 -6.970161 -1.871289
-12.733649 -7.147955 -1.613135
-12.868553 -6.980871 -1.618022
-12.659930 -7.023014 -1.674250
-12.830172 -6.936744 -1.434077
-12.759556 -7.463218 -1.919029
-12.668169 -7.364281 -1.969158
-12.662086 -7.482183 -1.807136
-12.700914 -7.369145 -1.804119
-12.686484 -7.200116 -1.791176
-12.885079 -7.396884 -1.555901
-12.773848 -7.303971 -1.626051
-12.717693 -7.274855 -1.440122
-12.748050 -7.738328 -2.005975
-12.873434 -7.618260 -2.012861
-12.780220 -7.579024 -1.642977
-12.631293 -8.420455 -1.972943
-12.686266 -8.472293 -1.769867
-12.889100 -8.469093 -1.619634
-12.724996 -8.480158 -1.604820
-12.668151 -8.485038 -1.401885
-12.677009 -8.502831 -1.115870
-12.889902 -8.505681 -1.040624
-12.731571 -8.491743 -1.029810
-12.702787 -8.530555 -0.740833
-12.887392 -8.480408 -0.664633
-12.697391 -8.497419 -0.556847
-12.693645 -8.545300 -0.375840
-12.690666 -8.566164 -0.180838
-12.888140 -8.519930 0.007378
-12.702979 -8.518946 0.105165
-12.730106 -8.561869 0.204207
-12.885265 -8.438722 0.278355
-12.735948 -8.430790 0.278181
-12.679806 -8.520697 0.467139
-12.686872 -8.545612 0.586153
-12.829123 -8.560421 0.763321
-12.664038 -8.569503 0.759133
-13.131063 6.308028 -0.355743
-13.160590 6.429641 0.172351
-13.135242 6.595504 0.414544
-13.150878 6.557289 0.682490
-12.964185 6.204969 -1.533680
-13.139380 6.293888 -0.177766
-13.147129 6.238678 0.082170
-12.948936 2.108295 -1.615305
-13.159638 2.178169 -1.559439
-12.976768 2.228241 -1.536185
-13.173435 2.114076 -1.469533
-13.126776 2.168103 -1.464417
-12.926271 2.279140 -1.376069
-12.944386 2.364153 -1.380983
-13.122286 -8.497078 -1.736359
-12.941169 -8.499145 -1.717567
-12.927685 -8.423194 -1.791601
-13.098374 -8.513953 -1.545382
-13.139802 -8.488786 -1.344341
-12.900911 -8.483878 -1.324617
-13.093854 -8.478729 -1.239396
-12.928668 -8.490729 -1.133583
-13.082146 -8.538534 -0.950394
-13.107675 -8.503461 -0.872374
-12.928574 -8.507536 -0.861579
-13.114380 -8.502243 -0.574366
-13.111387 -8.521113 -0.388365
-12.945293 -8.533188 -0.383553
-13.098401 -8.535976 -0.188376
-12.936307 -8.550052 -0.185559
-13.055470 -8.538858 0.004576
-13.066525 -8.573714 0.204597
-12.904199 -8.557787 0.204406
-13.159898 -8.435594 0.279670
-13.106755 -8.530495 0.472633
-12.933637 -8.525636 0.389432
-13.090547 -8.515359 0.668610
-12.916463 -8.522444 0.665412
-13.093748 -8.553290 0.771624
-13.332083 6.311807 -0.182943
-13.268894 6.343524 0.240154
-13.260053 6.428595 0.172249
-13.222460 6.599594 0.240460
-13.447179 6.412378 0.342043
-13.345717 6.413425 0.341147
-13.422500 6.388194 0.595043
-13.309594 6.434257 0.593205
-13.248797 6.285821 -1.487886
-13.325737 6.286268 -0.798964
-13.376107 6.296047 -0.533005
-13.210515 6.296991 -0.358835
-13.453151 6.267612 -0.010111
-13.342041 6.233588 0.080967
-13.312189 2.246133 -1.580515
-13.320244 2.161981 -1.421628
-13.316329 2.254940 -1.348508
-13.355209 2.375886 -1.274399
-13.474222 1.960223 -1.840041
-13.404608 2.031057 -1.588879
-13.206735 2.083133 -1.563607
-13.275992 -6.870837 -1.840587
-13.478539 -6.601503 -1.575426
-13.495550 -6.658146 -1.100392
-13.460408 -6.617221 -1.187442
-13.497649 -6.809976 -0.839351
-13.489280 -7.146609 -1.604276
-13.400074 -6.965607 -1.586423
-13.356443 -6.996558 -1.488464
-13.417339 -7.033395 -1.299386
-13.382229 -6.994472 -1.389435
-13.398418 -7.043331 -1.199405
-13.466074 -7.091901 -0.654316
-13.439168 -7.705667 -1.532193
-13.356425 -7.574673 -1.517320
-13.492814 -7.732360 -1.142125
-13.391817 -7.789480 -1.230226
-13.358707 -7.917098 -2.024232
-13.458791 -7.942483 -1.243111
-13.484662 -7.850242 -0.950105
-13.407331 -7.807990 -0.569203
-13.338262 -8.339188 -2.051150
-13.476037 -8.360487 -1.166987
-13.499378 -8.168440 -1.160008
-13.416377 -8.306079 -0.582069
-13.246446 -8.348254 0.670748
-13.277180 -8.344164 0.772782
-13.291636 -8.515019 -1.755160
-13.422653 -8.477896 -1.673019
-13.311095 -8.468935 -1.661149
-13.448351 -8.476736 -1.468990
-13.270247 -8.485806 -1.454192
-13.442218 -8.488524 -1.169994
-13.263960 -8.467661 -1.252203
-13.349804 -8.529424 -0.966089
-13.468973 -8.515233 -0.779956
-13.296879 -8.528307 -0.771150
-13.294481 -8.497166 -0.582161
-13.498228 -8.490862 -0.292928
-13.280722 -8.539042 -0.394166
-13.264729 -8.551907 -0.192181
-13.489202 -8.513658 0.000067
-13.293023 -8.511674 0.101842
-13.477257 -8.535519 0.204059
-13.328168 -8.561592 0.203895
-13.318222 -8.445521 0.280854
-13.464929 -8.516322 0.478040
-13.282847 -8.523410 0.475833
-13.473007 -8.544234 0.602057
-13.368462 -8.539284 0.599935
-13.355616 -8.570165 0.779929
-13.471584 -10.150743 -1.152541
-13.494349 -10.041428 -0.741542
-13.361587 -10.090831 0.203318
-13.363118 -10.026820 0.203303
-13.355008 -10.028684 0.402294
-13.224909 -10.327874 0.284220
-13.287314 -10.454720 0.492325
-13.352633 -10.657923 0.203452
-13.370687 -10.534896 0.203442
-13.347528 -10.662784 0.406448
-13.308511 -10.641738 0.494397
-13.311582 -10.535572 0.706374
-13.335299 -10.669505 0.819436
-13.353354 -10.546478 0.817425
-13.657907 6.671328 0.345092
-13.598086 6.655089 0.697136
-13.560760 6.664179 0.602183
-13.694891 6.300379 -1.164325
-13.683105 6.315052 -0.720297
-13.503662 6.312868 -0.369117
-13.526995 6.304719 -0.187149
-13.760140 6.441368 0.170754
-13.537435 6.411464 0.171950
-13.689905 6.142630 -1.527483
-13.620238 6.186664 -1.522366
-13.514905 6.289724 -1.516153
-13.710845 6.294512 -1.350348
-13.675475 6.285920 -0.547319
-13.539793 6.289046 -0.633178
-13.710646 6.291842 -0.464349
-13.731908 6.299628 -0.192362
-13.743526 6.251479 -0.013424
-13.696177 1.802121 -1.870473
-13.542876 1.907191 -1.849180
-13.720842 2.047033 -1.722191
-13.660716 2.067903 -1.530102
-13.649549 2.088854 -1.461064
-13.549697 -6.660418 -1.491331
-13.506330 -6.619277 -1.289390
-13.636725 -6.760967 -0.923207
-13.512042 -6.730087 -1.015355
-13.573610 -6.965751 -1.882226
-13.510257 -7.107087 -0.926262
-13.584371 -6.925021 -0.925224
-13.572598 -7.195940 -0.746169
-13.554927 -6.993907 -0.739240
-13.639441 -7.375450 -1.431048
-13.502791 -7.436879 -0.565187
-13.507538 -7.418806 -0.474186
-13.521526 -7.552607 -1.532137
-13.510831 -7.723495 -1.338107
-13.738240 -7.649393 -1.353867
-13.513536 -7.560534 -1.428144
-13.674438 -7.661274 -1.151936
-13.600026 -7.564355 -1.237045
-13.557729 -7.626384 -1.237078
-13.630039 -7.731160 -0.954969
-13.670963 -7.612198 -1.057952
-13.574534 -7.580738 -0.385070
-13.562162 -7.889657 -1.554007
-13.519100 -7.991616 -1.450030
-13.696182 -8.035132 -0.889817
-13.756827 -8.036024 -0.779748
-13.505657 -7.869179 -0.873076
-13.527291 -7.848084 -0.762056
-13.523340 -7.880887 -0.484053
-13.526716 -8.130080 -2.058987
-13.520190 -8.372689 -1.469934
-13.550419 -8.180569 -1.363947
-13.648332 -8.266254 -0.974813
-13.506709 -8.358329 -0.969952
-13.671617 -8.190230 -0.973806
-13.544044 -8.181222 -0.885954
-13.607405 -8.273131 -0.779858
-13.501328 -8.328186 -0.775966
-13.630177 -8.143033 -0.689865
-13.572716 -8.332879 -0.399883
-13.687027 -8.518018 -1.994706
-13.725644 -8.512859 -1.799663
-13.542292 -8.490922 -1.778879
-13.681720 -8.518734 -1.599712
-13.688581 -8.549438 -1.190696
-13.605695 -8.538321 -0.982794
-13.531905 -8.522349 -0.977882
-13.615310 -8.516172 -0.787788
-13.560094 -8.487984 -0.498858
-13.628919 -8.515888 -0.404773
-13.609916 -8.526749 -0.198791
-13.507302 -8.524734 -0.113909
-13.712873 -8.506349 0.282321
-13.723405 -8.453334 0.282320
-13.724028 -8.554206 0.482346
-14.033763 6.330472 -1.480639
-13.940533 6.313503 -1.470562
-13.870616 6.328112 -0.908475
-13.914493 6.300689 -0.383547
-14.047952 6.369222 0.170388
-13.903604 6.458305 0.170626
-13.867439 6.586292 0.241793
-13.960832 6.478149 0.346588
-13.967269 6.429137 0.346532
-13.975360 6.550098 0.424647
-13.980474 6.448864 0.705539
-13.925580 6.398953 0.607543
-13.904796 6.295297 -1.181544
-14.091923 6.297881 -0.742731
-13.910217 6.284031 -0.836561
-13.954603 6.278873 -0.654611
-13.933823 6.290538 -0.197577
-14.060011 6.239264 0.075241
-13.902113 6.269341 0.076433
-14.043836 6.262203 0.170282
-13.850860 6.291244 0.241508
-14.057241 6.247002 0.423252
-13.950561 6.276057 0.422391
-13.971579 6.295965 0.536390
-14.039641 2.007975 -1.828574
-13.911985 2.055024 -1.810382
-13.888349 2.039821 -1.558376
-13.885146 -8.516948 -2.017480
-14.004044 -8.454807 -1.910360
-13.919759 -8.508786 -1.819443
-14.069947 -8.509586 -1.636271
-13.990399 -8.523619 -1.629358
-13.875195 -8.489283 -1.106498
-14.081286 -8.514178 0.283744
-13.982504 -8.486219 0.282624
-14.028659 -8.545123 0.400692
-13.942882 -8.534100 0.484591
-14.052449 -8.563901 0.693724
-13.865434 -8.574051 0.610513
-13.924592 -8.648901 0.797600
-14.372642 6.304049 -1.130012
-14.157741 6.312135 -1.113784
-14.269211 6.327951 -0.934881
-14.323092 6.304515 -0.397960
-14.111179 6.313608 -0.390734
-14.140524 6.306450 -0.202772
-14.169139 6.279058 -1.026830
-14.330799 6.293863 -0.862979
-14.295985 6.285659 -0.575952
-14.155288 6.292793 -0.665801
-14.282306 6.288325 -0.127935
-14.301602 6.273232 -0.020970
-14.321357 6.220013 0.241955
-14.293161 6.249891 0.427015
-14.326518 6.242731 0.614974
-14.109593 6.249836 0.610202
-14.318809 1.826849 -1.865094
-14.160507 1.937922 -1.844788
-14.211541 1.956778 -1.694818
-14.117630 2.051688 -1.517601
-14.281146 -8.476799 -2.061039
-14.162059 -8.529851 -2.050161
-14.341664 -8.480556 -1.764969
-14.106876 -8.498716 -1.839232
-14.361854 -8.527480 -1.664934
-14.348252 -8.557731 -0.627941
-14.168101 -8.578740 -0.524141
-14.299323 -8.574528 -0.315992
-14.202402 -8.671515 -0.214078
-14.301383 -8.604394 -0.127982
-14.190928 -8.603507 -0.213108
-14.189236 -8.665368 -0.008094
-14.349966 -8.602208 0.095073
-14.147639 -8.576296 0.096835
-14.313380 -8.527074 0.284012
-14.323291 -8.543921 0.490027
-14.234075 -8.609880 0.618943
-14.195697 -8.689775 0.806920
-14.317771 -8.638707 0.810046
-14.193223 -8.626765 0.805901
-14.307430 -8.710629 -0.429948
-14.352840 -8.730150 0.204109
-14.522512 6.307707 -0.768160
-14.684590 6.311214 -0.216321
-14.460091 6.290013 -1.137115
-14.475261 6.285939 -1.049135
-14.688315 6.294573 -0.693343
-14.676498 6.287432 -0.503338
-14.520899 6.279564 -0.586188
-14.656458 6.293371 -0.410312
-14.532003 6.291424 -0.406187
-14.466895 6.295305 -0.210116
-14.649973 6.269076 -0.026330
-14.533525 6.270128 -0.024210
-14.498456 6.282999 0.169839
-14.507075 6.239789 0.428786
-14.438974 6.240676 0.617857
-14.591568 6.250530 0.720711
-14.555510 2.456483 -1.407558
-14.650980 2.643410 -1.327430
-14.631204 2.625340 -1.235431
-14.580270 2.618281 -1.139386
-14.685054 2.458137 -1.059692
-14.595498 2.614135 -0.972407
-14.679805 2.508942 -0.810624
-14.667265 2.668982 -0.812415
-14.681763 2.531799 -0.633597
-14.603733 1.979737 -1.845200
-14.553291 2.018761 -1.839098
-14.590046 2.076534 -1.575065
-14.585895 -8.499541 -1.889687
-14.545772 -8.473479 -1.785739
-14.445406 -8.514446 -1.671842
-14.667315 -8.549979 -1.163581
-14.645073 -8.576536 -0.541599
-14.556524 -8.587576 -0.538697
-14.643380 -8.627471 -0.439587
-14.429805 -8.566552 -0.431846
-14.598364 -8.625331 -0.221639
-14.457801 -8.605390 -0.218804
-14.679729 -8.610139 -0.013550
-14.557057 -8.598114 0.094307
-14.476684 -8.648078 0.204229
-14.620642 -8.613858 0.406384
-14.434559 -8.630948 0.405176
-14.625406 -8.619635 0.708391
-14.454171 -8.615776 0.623195
-14.622635 -8.660563 0.819398
-14.525093 -8.666611 0.816289
-14.423315 -8.638656 0.813166
-14.684495 -27.277252 -0.417885
-14.619310 -27.158144 -0.198999
-14.546777 -27.228174 -0.199054
-14.541225 -27.143862 0.333911
-14.501131 -27.350088 -0.009060
-14.441456 -27.439001 0.187906
-14.489951 -27.353893 0.334929
-14.534807 -27.473665 0.713021
-14.696889 -27.364595 0.712160
-14.593336 -27.377636 0.712051
-14.597068 -27.837191 -0.206782
-14.463117 -27.691120 -0.010981
-14.485983 -27.730000 0.188058
-14.605355 -27.770744 0.556203
-14.656816 -27.787407 1.106266
-14.474558 -27.750563 0.954054
-14.913695 6.319694 -0.978547
-14.711020 6.311773 -0.964349
-14.875153 6.307281 -0.418520
-14.930833 6.298763 -1.083587
-14.914225 6.284479 -0.705584
-14.864043 6.295424 -0.602522
-14.845578 6.272074 -0.138527
-14.876677 6.285979 -0.029544
-14.940079 6.286798 0.168393
-14.727373 6.276894 0.168599
-14.843228 6.253634 0.433457
-14.730769 6.258687 0.432577
-14.881593 6.247466 0.628412
-14.775041 6.258576 0.551532
-14.820498 6.242417 0.727469
-14.716032 6.251470 0.723585
-14.983346 2.928975 -0.910431
-14.715226 2.781046 -0.888329
-14.940947 2.862917 -0.833466
-14.758625 2.764882 -0.717394
-14.986781 2.800735 -0.652589
-14.716730 2.470351 -1.330710
-14.810671 2.405152 -1.156888
-14.715740 2.478278 -1.241699
-14.720754 2.620010 -0.886531
-14.852481 2.477785 -0.720842
-14.804428 2.492665 -0.546774
-14.920996 2.559632 -0.552814
-14.790317 2.598770 -0.639629
-14.945164 2.554551 -0.469845
-14.945164 2.554551 -0.469845
-14.834472 2.295353 -1.436049
-14.797822 2.368300 -1.336920
-14.876149 2.374048 -1.074995
-14.833773 2.326845 -0.820009
-14.820239 1.849642 -1.873590
-14.722590 1.905684 -1.860417
-14.984903 2.040395 -1.623523
-14.766482 2.055470 -1.596275
-14.749810 -8.658967 -1.173459
-14.861654 -8.565906 -1.177356
-14.946309 -8.587727 -0.982254
-14.985895 -8.578549 -0.767212
-14.790563 -8.563627 -0.757437
-14.882176 -8.585437 -0.550327
-14.901840 -8.576266 -0.332307
-14.908899 -8.610126 -0.138290
-14.925314 -8.688042 -0.016251
-14.882822 -8.600045 -0.015323
-14.990647 -8.659845 0.203815
-14.926874 -8.532791 0.286710
-14.708787 -8.535892 0.285463
-14.958025 -8.593630 0.499761
-14.862584 -8.631584 0.631663
-14.925263 -8.645412 0.828738
-14.722178 -8.655513 0.822510
-14.771042 -27.234217 -0.417806
-14.725485 -27.050987 -0.007920
-14.776364 -27.137857 0.188167
-14.840707 -27.078619 0.551217
-14.705646 -27.236677 0.552124
-14.964245 -27.578259 -0.586472
-14.702480 -27.413015 -0.009817
-14.862214 -27.359531 0.714339
-14.962038 -27.514360 0.955504
-14.971709 -27.438267 1.102487
-14.939993 -27.843287 -0.592405
-14.877250 -27.873411 0.961538
-14.996305 -27.678354 0.959599
-14.976388 -27.778162 1.311613
-15.283175 6.285622 -1.108961
-15.154730 6.285673 -1.099829
-15.209986 6.061379 -0.801122
-15.228894 6.205400 -0.805989
-15.072948 6.276333 -0.611755
-15.228578 6.299047 -0.324890
-15.054119 6.279119 -0.319732
-15.233866 6.275967 -0.228919
-15.152418 6.296007 -0.227815
-15.256584 6.228722 0.065008
-15.095591 6.270878 -0.031783
-15.077538 6.291737 0.168257
-15.298059 6.229416 0.438967
-15.049757 6.272604 0.354266
-15.114422 6.241411 0.558167
-15.294127 6.253191 0.740996
-15.007412 6.214322 0.732248
-15.154860 5.721939 -1.569428
-15.078414 5.745972 -1.562324
-15.216749 5.846335 -0.797357
-15.213737 5.637901 -1.572579
-15.114531 5.416660 -1.254716
-15.290126 3.300318 -1.406308
-15.147965 3.519339 -1.303900
-15.141068 3.322997 -0.927125
-15.276854 3.377956 -0.938201
-15.055684 3.446136 -1.021890
-15.161217 3.318927 -0.854151
-15.197555 3.400931 -0.858091
-15.146811 3.371858 -0.749073
-15.226050 3.503638 -0.489999
-15.132545 3.416729 -0.572004
-15.120526 3.323570 -0.394102
-15.258526 3.478464 -0.300063
-15.110649 3.418594 -0.393979
-15.267570 3.485388 -0.210064
-15.177441 3.366401 -0.207110
-15.125966 3.426287 -0.022986
-15.121009 3.165351 -1.386292
-15.069983 3.287241 -1.196093
-15.075476 3.042964 -0.918390
-15.240890 3.050754 -0.750554
-15.232351 3.219793 -0.752343
-15.027175 3.102705 -0.563268
-15.246904 3.189564 -0.488394
-15.131301 3.221689 -0.570235
-15.207947 3.196426 -0.297345
-15.149212 3.282332 -0.128181
-15.010792 2.885955 -0.911512
-15.017756 2.909812 -0.735490
-15.016075 2.972911 -0.839412
-15.250154 2.931579 -0.572707
-15.140591 2.861609 -0.566676
-15.203714 2.970606 -0.570611
-15.081791 2.737462 -0.388765
-15.123754 2.849541 -0.479673
-15.086617 -6.565049 -1.927634
-15.229017 -6.591696 -1.545468
-15.210852 -6.629108 -2.063478
-15.244258 -6.846907 -1.774382
-15.126698 -6.852952 -1.762511
-15.234344 -6.609864 -1.762457
-15.254164 -6.630614 -1.444430
-15.265366 -6.682460 -1.238403
-15.253125 -6.648458 -1.236426
-15.288598 -7.165874 -1.688246
-15.066828 -7.089019 -1.766515
-15.089405 -6.923979 -1.761534
-15.160037 -7.165920 -1.674390
-15.296132 -6.999752 -1.568282
-15.250691 -7.185725 -1.466283
-15.289052 -7.010593 -1.353287
-15.259212 -7.367837 -1.580225
-15.183675 -7.392871 -1.574302
-15.244353 -7.390768 -1.474235
-15.278312 -7.379045 -0.542200
-15.229182 -7.205108 -0.635301
-15.143735 -7.658774 -1.366276
-15.053943 -7.643806 -1.358381
-15.217456 -7.668671 -1.269191
-15.067128 -7.684732 -1.258355
-15.285741 -7.563077 -0.546142
-15.293497 -8.526575 -1.000877
-15.048866 -8.582684 -0.988140
-15.150548 -8.607556 -0.871018
-15.271209 -8.515335 -0.665905
-15.063500 -8.591362 -0.558120
-15.292255 -8.570096 -0.342867
-15.108169 -8.596180 -0.338068
-15.286068 -8.564951 -0.143875
-15.029562 -8.619142 -0.231151
-15.274624 -8.526776 0.090102
-15.084158 -8.618959 -0.018090
-15.294285 -8.638702 0.204154
-15.028421 -8.526744 0.286823
-15.274796 -8.439614 0.288079
-15.276412 -8.547473 0.504110
-15.051805 -8.614589 0.501873
-15.138445 -8.628451 0.637975
-15.140349 -8.626389 0.721976
-15.064205 -8.760913 0.090925
-15.107998 -8.804596 0.503986
-15.036539 -27.812248 -0.593310
-15.016905 -27.646141 1.308610
-15.021821 -27.931355 0.964716
-15.000900 -28.030163 1.319729
-15.498003 6.340097 -0.539122
-15.396553 6.353143 -0.535005
-15.446041 6.335961 -0.332073
-15.522995 6.363017 -0.443124
-15.523203 6.369795 -0.153117
-15.323368 6.305569 0.244021
-15.470481 6.347569 0.166914
-15.408639 6.331383 0.441961
-15.493719 6.349412 0.358893
-15.408916 6.310285 0.564938
-15.398164 6.084538 -1.112291
-15.363602 6.015539 -1.107328
-15.403626 6.280574 -1.118089
-15.419482 6.065444 -1.006332
-15.378603 6.042394 -0.923315
-15.447384 6.215462 -1.012202
-15.331620 6.271458 -0.926025
-15.447913 6.282567 0.166869
-15.380217 6.268231 0.640924
-15.312895 5.813663 -1.284492
-15.345763 5.853585 -1.193483
-15.356886 5.741405 -0.993614
-15.361914 5.872368 -0.918479
-15.462873 5.806227 -0.810653
-15.375163 5.403796 -1.579999
-15.414186 5.659833 -1.594762
-15.334906 5.431735 -1.472927
-15.359201 5.659695 -1.385705
-15.351299 5.666546 -1.187689
-15.501781 5.687337 -1.001822
-15.361253 5.266774 -1.574135
-15.522399 5.218466 -1.284354
-15.336057 5.303632 -1.371068
-15.407375 3.308201 -1.324421
-15.361149 3.539342 -1.419099
-15.332196 3.322152 -1.220326
-15.344537 3.399163 -1.223247
-15.328608 3.578612 -0.495018
-15.369246 3.555295 -0.134088
-15.388432 3.437175 -0.027247
-15.307942 3.262920 -0.938371
-15.438416 3.133781 -0.870661
-15.458237 3.169693 -0.765639
-15.482001 3.117452 -0.497726
-15.432562 3.156480 -0.495627
-15.473523 3.179394 -0.406643
-15.353980 3.131212 -0.132575
-15.412217 3.221271 -0.212528
-15.350099 3.229234 -0.132454
-15.341836 3.156135 -0.025532
-15.305458 -6.907816 -1.678297
-15.357005 -7.044495 -1.257202
-15.404663 -7.045314 -1.048149
-15.340833 -7.049276 -0.959219
-15.323188 -7.099201 -0.839225
-15.330999 -6.955171 -0.836255
-15.509195 -7.909527 -1.198799
-15.374793 -7.818410 -0.983974
-15.388927 -7.856319 -0.862948
-15.301826 -7.813276 -0.763057
-15.374429 -7.820088 -0.553974
-15.447529 -8.356388 -0.879749
-15.519937 -8.316480 0.288323
-15.426593 -8.288108 0.838210
-15.374630 -8.135106 0.834111
-15.599462 -8.531519 -1.108531
-15.323857 -8.446613 -1.087864
-15.492492 -8.507398 -0.886658
-15.318784 -8.444550 -0.999871
-15.547933 -8.471296 -0.791605
-15.315640 -8.571482 -0.878841
-15.327596 -8.449385 -0.780859
-15.539846 -8.469214 -0.676615
-15.328178 -8.419218 -0.563866
-15.540071 -8.524068 -0.466600
-15.523047 -8.538911 -0.240615
-15.463142 -8.412752 -0.020716
-15.348453 -8.408722 0.090154
-15.441648 -8.495609 0.204282
-15.510535 -8.540430 0.415372
-15.550138 -8.534239 0.645415
-15.307523 -8.594365 0.641157
-15.540029 -8.524179 0.730401
-15.343196 -8.592201 0.840197
-15.839722 6.302559 -1.346512
-15.735054 6.413167 -0.751288
-15.796130 6.442066 -0.649320
-15.891262 6.488885 -0.458368
-15.681649 6.358023 0.754710
-15.785862 5.716709 -1.635083
-15.852437 5.716363 -1.230152
-15.600325 5.804172 -0.818797
-15.845301 5.683681 -1.640180
-15.743184 5.457354 -1.213320
-15.760573 5.675317 -1.127101
-15.897225 5.531152 -1.026399
-15.768776 5.540204 -1.017256
-15.638888 5.602267 -1.010055
-15.881166 -8.521241 -0.907216
-15.650912 -8.493424 -1.021483
-15.641433 -8.424416 -1.018512
-15.727178 -8.472137 -0.685403
-15.898638 -8.495991 -0.587203
-15.614629 -8.477185 -0.680528
-15.660064 -8.436081 -0.577488
-15.869963 -8.538930 -0.478224
-15.642857 -8.547028 -0.470477
-15.856565 -8.516690 -0.153245
-15.621596 -8.527864 -0.242506
-15.706085 -8.405559 0.088556
-15.687268 -8.434487 0.203543
-15.874173 -8.540260 0.418782
-15.734624 -8.531323 0.417622
-15.882013 -8.550085 0.652793
-15.674690 -8.537180 0.648556
-15.678587 -8.549030 0.850564
-15.912060 6.300454 -1.252589
-16.061176 6.406033 -0.768629
-15.933725 6.411085 -0.761493
-16.065042 6.437954 -0.661599
-15.936586 6.443008 -0.655463
-16.174612 6.432755 -0.467717
-16.120810 6.419543 -0.165675
-16.148235 6.401356 0.057278
-16.185135 6.443264 0.165284
-16.111284 6.426074 0.451342
-16.131594 6.408962 0.580303
-16.174065 6.387791 0.770238
-16.103613 6.295458 -1.368790
-16.033499 6.293407 -1.262720
-16.029621 6.050137 -0.965975
-16.125723 6.229972 -0.767881
-16.145027 6.210877 -0.660921
-16.100332 6.259205 0.245177
-15.917742 5.427441 -1.429534
-16.042906 5.612196 -1.147461
-16.172123 5.517041 -1.044698
-16.062130 5.154499 -1.643984
-16.007721 5.211364 -1.430864
-15.917726 5.192312 -1.317792
-16.048626 5.362379 -1.439740
-16.082609 5.274189 -1.236872
-15.957728 5.341250 -1.228669
-16.070677 -8.520329 -1.138003
-15.934117 -8.514381 -1.129158
-16.100351 -8.501245 -1.047975
-15.997290 -8.484027 -0.697095
-15.913583 -8.469146 -0.810194
-16.143734 -8.491887 -0.596929
-16.069843 -8.498747 -0.362010
-16.086655 -8.505588 -0.157989
-16.150452 -8.538383 0.085092
-16.047552 -8.526274 0.290973
-15.963299 -8.450299 0.290858
-16.129976 -8.515066 0.516063
-16.119095 -8.542971 0.658058
-16.166277 -8.478784 0.864094
-15.991431 -8.535965 0.741913
-16.027145 -9.787991 -0.380711
-16.052433 -9.870840 -0.170660
-16.046955 -9.797830 -0.169686
-16.013975 -9.813664 0.081281
-16.092716 -9.835544 0.203376
-16.053267 -9.817151 0.761327
-16.075336 -9.974093 -0.511607
-16.036102 -9.933012 -0.383662
-16.027634 -9.902759 -0.036680
-16.108194 -9.914549 0.203415
-16.091257 -10.000073 0.887419
-16.319073 6.309464 -1.496996
-16.238047 6.389798 -0.570827
-16.225101 6.402641 -0.356800
-16.284426 6.396536 -0.256867
-16.203688 6.365324 0.057183
-16.224581 6.401237 0.165200
-16.252256 6.347061 0.365114
-16.238707 6.307891 0.582087
-16.210112 6.383858 0.662197
-16.259514 6.364746 0.772126
-16.495644 6.291477 -1.618196
-16.368504 6.285356 -1.391072
-16.468603 6.277681 -0.579182
-16.222702 6.296787 -0.568910
-16.484627 6.293597 -0.477181
-16.265938 6.295690 -0.468955
-16.302582 6.261434 -0.168029
-16.485188 6.270263 -0.051206
-16.218489 6.253377 -0.047951
-16.292908 6.254179 0.164974
-16.423744 6.231892 0.453816
-16.253700 6.289049 0.365051
-16.453083 6.237630 0.775793
-16.256168 6.276731 0.771036
-16.494913 5.825745 -0.780694
-16.279354 5.806899 -0.858493
-16.351883 5.800637 -0.566574
-16.288347 5.529999 -1.053803
-16.368313 5.468727 -0.766953
-16.458063 5.416595 -0.663103
-16.352732 5.433566 -0.561975
-16.341785 5.447407 -0.350948
-16.391424 5.627508 -0.464803
-16.348509 5.507269 -0.164889
-16.348764 5.617197 -0.046769
-16.333717 5.219083 -1.256193
-16.412626 5.177722 -0.854320
-16.338276 5.207687 -0.761209
-16.381706 5.307605 -0.658144
-16.399836 5.320445 -0.462148
-16.337753 5.195359 -0.348222
-16.214478 5.060258 -1.446246
-16.338459 5.070576 -0.652362
-16.402588 5.098399 -0.459397
-16.304287 3.322551 -1.012341
-16.409895 3.316193 -0.634458
-16.490086 3.344921 -0.339507
-16.448046 3.294259 -0.740524
-16.327478 3.217290 -0.732490
-16.430767 3.117987 -0.443716
-16.347488 3.027914 -0.332737
-16.452959 3.231913 -0.337603
-16.432873 3.019727 -0.154836
-16.442860 3.047553 0.058187
-16.400114 3.247613 0.058471
-16.384459 3.191691 -0.041579
-16.305082 3.014457 0.239292
-16.346336 3.230484 0.239507
-16.494427 3.024281 0.353106
-16.373884 2.940216 -0.732871
-16.304171 2.905151 -0.625840
-16.296736 2.955164 -0.625772
-16.459742 2.887927 -0.443023
-16.307802 2.864897 -0.330892
-16.319962 2.868744 -0.151900
-16.374224 2.956808 -0.236851
-16.331390 2.844558 0.060059
-16.356421 2.952652 -0.039837
-16.433710 2.837426 0.161943
-16.318621 2.835413 0.239061
-16.489523 2.892255 0.352952
-16.473280 2.832013 0.636896
-16.465702 2.413723 -1.511609
-16.417553 2.435661 -1.407531
-16.382141 2.490599 -1.302427
-16.337267 2.586634 -1.299263
-16.361172 2.505452 -1.112387
-16.430580 2.575518 -1.211373
-16.293739 2.545485 -1.107267
-16.365597 2.500129 -0.728397
-16.485048 2.574169 -0.822432
-16.350292 2.651166 -0.729197
-16.426678 2.404921 -0.535578
-16.389885 2.482029 -0.626445
-16.397144 2.580970 -0.535331
-16.364275 2.678003 -0.534178
-16.461664 2.422830 -0.440592
-16.382299 2.465782 -0.331456
-16.428139 2.597880 -0.440343
-16.277763 2.628860 -0.329148
-16.477598 2.456661 -0.238567
-16.285240 2.477676 -0.150340
-16.429508 2.577706 -0.237368
-16.299625 2.659778 -0.234133
-16.439020 2.423505 -0.040567
-16.315134 2.507576 -0.039335
-16.432924 2.681479 0.058755
-16.293823 2.657617 -0.039129
-16.462341 2.421261 0.238406
-16.454243 2.659379 0.161706
-16.252144 2.644402 0.237899
-16.450401 2.435105 0.434436
-16.495491 2.659202 0.352663
-16.497341 2.472924 0.635433
-16.492184 2.620872 0.739620
-16.310814 2.120891 -1.694809
-16.478863 2.289611 -1.411775
-16.484324 2.377459 -1.213672
-16.495438 2.297220 0.238219
-16.420572 -8.535192 -1.161606
-16.456158 -8.522008 -0.938570
-16.338612 -8.529057 -0.932700
-16.474733 -8.498831 -0.718555
-16.291485 -8.500997 -0.829760
-16.451948 -8.544683 -0.497568
-16.345158 -8.522724 -0.493694
-16.310934 -8.490641 -0.368741
-16.430525 -8.516438 -0.163600
-16.308130 -8.529566 -0.257734
-16.498089 -8.518223 0.083477
-16.381542 -8.525276 0.084348
-16.278191 -8.579244 0.203247
-16.445471 -8.433075 0.292394
-16.220388 -8.451181 0.292147
-16.454140 -8.545992 0.424435
-16.211048 -8.553106 0.422164
-16.469967 -8.558807 0.665456
-16.270519 -8.521002 0.518222
-16.463829 -8.547741 0.754447
-16.348047 -8.521791 0.751310
-16.728529 6.264386 -1.640464
-16.534599 6.013765 -0.786532
-16.609955 6.275698 -0.684329
-16.535633 6.275815 -0.791253
-16.512470 6.035693 -0.675486
-16.783508 6.282550 -0.592499
-16.604548 6.232447 -0.366369
-16.693455 6.293340 -0.266395
-16.532993 6.290409 -0.262234
-16.629642 6.268198 -0.053356
-16.739073 6.280983 0.163545
-16.549925 6.233996 0.245689
-16.755672 6.242739 0.458488
-16.669594 6.244613 0.671578
-16.528072 6.246744 0.586725
-16.740011 6.230491 0.784491
-16.568935 5.824880 -0.995771
-16.586069 5.945897 -0.999658
-16.622700 5.758752 -0.877898
-16.516226 5.805647 -0.671738
-16.695900 5.588940 -1.197160
-16.582243 5.634993 -1.188992
-16.685352 5.549781 -0.997191
-16.588472 5.630835 -0.993003
-16.752773 5.543586 -0.789267
-16.638796 5.620719 -0.876065
-16.530445 5.638694 -0.778934
-16.511314 5.661621 -0.669889
-16.618668 5.355770 -0.989336
-16.628340 5.347265 -0.358355
-16.674408 3.356765 -0.246685
-16.568958 3.388815 -0.243537
-16.605007 3.316451 0.162340
-16.675831 3.484390 0.240465
-16.728548 3.432190 0.442349
-16.709627 3.433095 0.568370
-16.757538 3.353904 0.754226
-16.644905 3.254008 -0.550777
-16.625446 3.108665 -0.159930
-16.640278 3.243755 -0.244784
-16.579926 3.152762 -0.242830
-16.509407 3.007428 0.162070
-16.531879 3.195458 0.162272
-16.650637 3.282195 0.440252
-16.512497 3.149229 0.438237
-16.587452 3.064074 0.564057
-16.587452 3.064074 0.564057
-16.726017 3.275990 0.646166
-16.581362 3.194104 0.564219
-16.626488 3.088909 0.748046
-16.710403 3.237902 0.751137
-16.536282 2.751627 -0.156268
-16.513662 2.805902 0.741822
-16.556353 2.970917 0.744977
-16.681072 2.507757 -1.643718
-16.584604 2.561711 -1.526552
-16.512461 2.579656 -1.418454
-16.600056 2.459197 -0.942693
-16.561935 2.458278 -1.020654
-16.569183 2.558228 -0.941539
-16.511356 2.423128 -0.822644
-16.598442 2.422266 0.161265
-16.669691 2.426074 0.353196
-16.508720 2.658023 0.559648
-16.630175 2.407760 0.743215
-16.543287 2.498822 0.740417
-16.728863 2.192588 -1.536156
-16.543819 2.279759 -1.624855
-16.731941 2.195502 -1.435156
-16.681002 2.216275 -1.134076
-16.521978 2.305430 -1.215800
-16.708462 2.297191 -1.030005
-16.517145 2.317199 -0.935781
-16.752087 2.141903 -0.747242
-16.625322 2.206040 -0.828031
-16.563562 2.298009 -0.737852
-16.603010 2.359079 -0.827819
-16.659426 2.231792 -0.545034
-16.629980 2.388915 -0.638810
-16.732988 2.305695 -0.451019
-16.525616 2.332695 -0.335770
-16.714550 2.355713 -0.449939
-16.651657 2.248473 -0.158005
-16.546778 2.337536 -0.155785
-16.784880 2.134296 -0.046285
-16.623997 2.217382 -0.043014
-16.500648 2.252359 0.058158
-16.798416 2.216133 0.160802
-16.613968 2.243220 0.161028
-16.722261 2.136917 0.437784
-16.797663 2.208970 0.353795
-16.737225 2.253006 0.353912
-16.518280 2.342054 0.435251
-16.706982 2.191765 0.639868
-16.580015 2.278908 0.560108
-16.678051 2.310717 0.744045
-16.579359 1.832893 -1.898448
-16.755775 2.050806 -1.840361
-16.774050 2.080376 -1.333342
-16.794184 2.085379 -0.161356
-16.627407 2.083115 0.237816
-16.749994 2.067784 0.562670
-16.609091 -7.936444 -1.731561
-16.652727 -8.070274 -1.505475
-16.719814 -7.960319 -1.627430
-16.557993 -7.929284 -1.492620
-16.789782 -8.014126 -1.402337
-16.659678 -8.523094 -1.176342
-16.598562 -8.490043 -1.078419
-16.762672 -8.470797 -0.852241
-16.617168 -8.500690 -0.615395
-16.668819 -8.505490 -0.379336
-16.539265 -8.506545 -0.375481
-16.789558 -8.539358 -0.269191
-16.629831 -8.560080 0.203636
-16.523283 -8.572130 0.203520
-16.843855 6.278263 -1.544567
-16.992981 6.274629 -0.815723
-17.082449 6.285345 -0.498803
-16.905954 6.270498 -0.597638
-17.010466 6.269281 -0.379746
-16.973682 6.225288 -0.377755
-16.930628 6.240157 -0.180695
-17.072025 6.257002 -0.059822
-16.903620 6.258992 0.051353
-16.880531 6.275918 0.163395
-16.908131 6.241668 0.460330
-16.953516 6.234476 0.679276
-17.052729 6.259346 0.795201
-17.083157 5.570697 -1.110579
-16.811266 5.594808 -1.092272
-16.891802 5.562702 -1.011390
-16.911539 5.511428 -0.686467
-16.941227 5.549511 -0.799455
-16.836145 3.310616 -0.164909
-16.935492 3.412595 -0.166891
-16.894485 3.430435 0.054173
-16.991390 3.476313 0.161126
-16.999853 3.444140 0.359080
-16.843626 3.438209 0.358236
-16.926691 3.583131 0.446321
-16.837500 3.486982 0.651300
-16.915995 3.558026 0.573302
-16.842676 3.478890 0.758285
-17.020676 2.645399 -1.362905
-16.878824 2.650278 0.055251
-17.032938 2.100463 -1.566588
-16.826515 2.126540 -1.545340
-16.812389 2.164378 -1.337278
-16.857718 2.142275 -1.243353
-16.876282 2.197279 -1.245304
-17.064877 2.183964 -0.972517
-16.814335 2.207132 -1.036227
-16.899979 2.163925 -0.845369
-16.899979 2.163925 -0.845369
-16.843584 2.142524 -0.345336
-16.888863 2.222615 -0.456285
-16.893894 2.123417 -0.248413
-16.844017 2.222458 -0.247238
-16.884098 2.121251 -0.047405
-16.915514 2.100057 0.160536
-16.838320 2.135936 0.353662
-16.816648 2.127701 0.641674
-16.876038 2.101579 0.748580
-16.809160 2.197631 0.747769
-16.877640 1.960748 -1.853600
-16.896242 2.059417 -1.449496
-17.003952 2.069791 -0.761595
-16.909821 2.086741 -0.650475
-17.058451 2.065421 -0.352656
-17.038979 2.035167 -0.049673
-17.029486 2.068500 0.753379
-16.802677 -6.324400 -2.118804
-17.007006 -6.487019 -1.712532
-16.991663 -6.464840 -1.478555
-17.007717 -6.347811 -1.476572
-16.974833 -7.486528 -0.840279
-17.010365 -7.437504 -0.840254
-16.941036 -7.380430 -0.716347
-17.035734 -7.256283 -0.609277
-16.877579 -7.360030 -0.162423
-16.916857 -7.584529 -2.094317
-17.097013 -7.569289 -1.887121
-16.989178 -7.684350 -1.881208
-17.092913 -7.569195 -1.762125
-17.070526 -7.673041 -1.526121
-16.991735 -7.791185 -1.644175
-17.030628 -7.697890 -1.300158
-16.950710 -7.662998 -1.402257
-17.086691 -7.592849 -1.301125
-17.036253 -7.675717 -1.081158
-17.075459 -7.599586 -0.949136
-16.978285 -7.520712 -1.074266
-17.093529 -7.765532 -0.852069
-17.081335 -7.597505 -0.848130
-16.984737 -7.519268 -0.499259
-17.070642 -7.918365 -1.900052
-17.053158 -7.844357 -1.895092
-17.072538 -7.920269 -1.775049
-17.087683 -7.976091 -1.538016
-17.050888 -8.003023 -1.422050
-16.969292 -7.899952 -1.302169
-17.020924 -7.897765 -1.087112
-16.846359 -7.883832 -1.075310
-16.842272 -8.104122 -1.409254
-17.082855 -8.191795 -1.098961
-16.891819 -8.494093 -1.317090
-17.061111 -8.486930 -1.201903
-16.906786 -8.511995 -1.192068
-17.087170 -8.535754 -0.973860
-16.949614 -8.535810 -0.966014
-16.834387 -8.478678 -0.734158
-16.858223 -8.451755 -0.856139
-17.082701 -8.524412 -0.518868
-16.825600 -8.532522 -0.510153
-16.931910 -8.500376 -0.386043
-16.849653 -8.593267 -0.172109
-16.894863 -8.661159 -0.038040
-17.011406 -8.651106 -0.039912
-17.007746 -8.672410 0.894090
-16.889210 -8.681470 0.889960
-16.899031 -37.805855 -0.340645
-17.001854 -37.990685 -0.086466
-16.852291 -37.976738 -0.086630
-17.299154 6.287162 -0.389023
-17.337545 6.272987 -0.190078
-17.139088 6.259070 -0.185889
-17.373718 6.278873 -0.064108
-17.297215 6.219654 0.247907
-17.175451 6.266784 0.163082
-17.334280 6.252473 0.465904
-17.176697 6.259619 0.372074
-17.272221 6.264331 0.686981
-17.120762 6.267403 0.683140
-17.200191 6.254274 0.799044
-17.103319 2.171546 -1.684573
-17.335360 2.123097 -1.283875
-17.294069 2.166038 -1.182778
-17.149855 2.174093 -1.171618
-17.255529 2.127880 -0.984785
-17.247976 2.184965 -1.068707
-17.363794 2.149703 0.359130
-17.270697 1.873602 -1.901119
-17.155842 1.966657 -1.887883
-17.361612 2.042433 -1.712003
-17.266352 2.077378 -1.590860
-17.268795 2.061110 -1.277882
-17.212254 1.935683 -0.772979
-17.252382 2.047690 -0.775881
-17.397341 1.847417 -0.576282
-17.307791 1.893545 -0.670131
-17.276699 2.024584 -0.668935
-17.309925 1.901377 -0.471123
-17.250267 1.975417 -0.469969
-17.371380 1.889095 -0.173202
-17.322500 1.992137 -0.172023
-17.385302 1.914994 -0.054184
-17.289942 1.960956 0.050973
-17.211308 2.051851 0.239168
-17.154873 2.097885 0.239284
-17.343105 1.984678 0.357947
-17.185591 2.038687 0.443179
-17.120901 2.007601 0.570208
-17.210552 1.506626 -1.975517
-17.367245 1.698775 0.158564
-17.361811 1.751789 0.158637
-17.278027 -6.291069 -1.970292
-17.360498 -6.146824 -1.735245
-17.184818 -6.275823 -1.607399
-17.184818 -6.275823 -1.607399
-17.177105 -6.180808 -1.604435
-17.323597 -6.540914 -1.745168
-17.321167 -6.351878 -1.738227
-17.281462 -6.550659 -1.393211
-17.360188 -6.422520 -1.288163
-17.236876 -6.471577 -1.280284
-17.270401 -6.420554 -1.281262
-17.328251 -6.642841 -1.633133
-17.333328 -6.696583 -1.293111
-17.154387 -6.628723 -1.385328
-17.351530 -6.744488 -1.171077
-17.345669 -6.772423 -1.078076
-17.386120 -7.395327 -2.137851
-17.175022 -7.437410 -2.116072
-17.132063 -7.454255 -1.886115
-17.210989 -7.490137 -1.770017
-17.170258 -7.375129 -1.761095
-17.129026 -7.383793 -1.298138
-17.103741 -7.350701 -1.170175
-17.213923 -7.458425 -0.852022
-17.247520 -7.533402 -2.128964
-17.116442 -7.607463 -2.118089
-17.142879 -7.721205 -1.773027
-17.242174 -7.542044 -1.656968
-17.130110 -7.503986 -1.524103
-17.205921 -7.687724 -1.186966
-17.145864 -7.792768 -1.186003
-17.367283 -7.527630 -1.192833
-17.363014 -8.449901 -1.349576
-17.353109 -8.487741 -1.123577
-17.217724 -8.531701 -0.980715
-17.279816 -8.459489 -0.752666
-17.106733 -8.511571 -0.746845
-17.381359 -8.439445 -0.757559
-17.200483 -8.547366 -0.522730
-17.306791 -8.513217 -0.396621
-17.169237 -8.514277 -0.392774
-17.280535 -8.635087 -0.179616
-17.134987 -8.632151 -0.177779
-17.324417 -8.698719 0.296451
-17.343945 -8.639700 0.296456
-17.270832 -8.666283 0.901383
-17.672039 6.291098 -0.520402
-17.535542 6.295241 -0.624257
-17.589052 6.273036 -0.397336
-17.444778 6.281942 -0.192178
-17.634674 6.259667 0.044603
-17.477217 6.263738 0.046769
-17.464149 6.282658 0.161803
-17.628855 6.274414 0.375626
-17.481743 6.245403 0.467745
-17.472811 2.142503 -1.830995
-17.412413 2.151897 -1.079919
-17.432379 2.095454 -0.579010
-17.430031 1.815055 -0.174356
-17.518219 2.040140 -0.265167
-17.495525 1.899944 -0.056318
-17.523632 1.926686 0.239686
-17.451855 2.004803 0.158858
-17.546988 1.899568 0.359628
-17.648705 1.958460 0.449596
-17.476677 2.054632 0.359895
-17.642029 1.933346 0.581572
-17.673664 1.993276 0.663613
-17.677626 1.671430 -1.948796
-17.509989 1.736497 -1.928540
-17.421562 1.781535 -1.918391
-17.667698 1.673639 0.158220
-17.419991 -6.229818 -1.744155
-17.618729 -6.272662 -1.647924
-17.682034 -6.083506 -1.525912
-17.495192 -6.177595 -1.513088
-17.611467 -6.132453 -1.407974
-17.583748 -6.472082 -2.120903
-17.408226 -6.346118 -2.095133
-17.655077 -6.552985 -2.021801
-17.636139 -6.302852 -1.892896
-17.578386 -6.302965 -2.003960
-17.526590 -6.327896 -1.882009
-17.558084 -6.461537 -1.412934
-17.659916 -6.339475 -1.417859
-17.520254 -6.352445 -1.298008
-17.650620 -6.470245 -1.090830
-17.415154 -6.451406 -1.168094
-17.409529 -6.510347 -1.076082
-17.415045 -6.448334 -1.075095
-17.647207 -6.688100 -2.136770
-17.547897 -6.747147 -2.127861
-17.637724 -6.620091 -2.132800
-17.459600 -6.658429 -1.175984
-17.478123 -6.601411 -1.175980
-17.540051 -6.653140 -0.851897
-17.652647 -8.319129 -1.846291
-17.452173 -8.397685 -1.127491
-17.653561 -8.466063 -1.730248
-17.609716 -8.500900 -1.482287
-17.453159 -8.495960 -1.470463
-17.660351 -8.501695 -1.241230
-17.506664 -8.491681 -1.133404
-17.616385 -8.517537 -1.002275
-17.453821 -8.508600 -0.992458
-17.601934 -8.476358 -0.767302
-17.458584 -8.535254 -0.531445
-17.556093 -8.540027 -0.286335
-17.491621 -8.599988 -0.183390
-17.441097 -8.678828 0.077576
-17.672428 -8.526790 -0.046209
-17.519157 -8.578775 0.076635
-17.670439 -8.559608 0.202798
-17.424004 -8.541646 0.296518
-17.521063 -8.450586 0.296601
-17.622282 -8.545451 0.436740
-17.557220 -8.651500 0.436698
-17.521891 -8.600430 0.537644
-17.490349 -8.683275 0.782632
-17.507668 -8.609159 0.908631
-17.523046 -8.870729 0.202721
-17.492319 -8.750722 0.203653
-17.483171 -8.754553 0.435644
-17.445177 -8.915407 0.689647
-17.481226 -8.794370 0.689653
-17.424019 -8.894343 0.783617
-17.796133 6.330163 0.613514
-17.714729 6.367141 0.698637
-17.829180 6.362994 0.819516
-17.846495 6.292026 -0.527580
-17.901882 6.287819 -0.296641
-17.766506 6.275961 -0.403515
-17.922136 6.271733 -0.201679
-17.766682 6.277802 -0.198513
-17.844091 6.265665 -0.070605
-17.898819 6.224383 0.248294
-17.787067 6.277511 0.161466
-17.956120 6.232181 0.474244
-17.856623 6.295061 0.701414
-17.881065 6.256949 0.820348
-17.720642 5.678734 -1.491118
-17.801800 5.628180 -0.848257
-17.961071 2.037318 -1.886635
-17.911648 2.086344 -1.881522
-17.768187 1.820991 -0.271701
-17.902756 1.945594 0.157315
-17.925230 1.913402 0.363251
-17.863981 1.849156 0.668235
-17.913538 1.926055 0.782280
-17.983667 2.046048 0.784356
-17.741430 2.045161 0.776607
-17.795118 -6.232682 -1.780744
-17.819342 -6.151564 -1.661742
-17.783571 -6.053463 -1.533811
-17.792965 -6.296155 -1.095727
-17.924150 -6.217164 -1.197607
-17.756765 -6.125136 -1.089818
-17.763809 -6.001110 -1.087848
-17.976725 -6.204959 -0.970553
-17.790163 -6.205033 -0.959757
-17.914732 -6.336759 -1.922582
-17.886318 -6.302568 -1.672623
-17.706882 -6.483485 -1.425765
-17.920948 -6.469138 -1.107534
-17.801077 -6.302227 -1.190716
-17.923437 -6.735638 -1.690452
-17.770758 -6.680132 -0.967636
-17.733265 -6.601131 -0.963700
-17.888905 -8.471975 -1.750985
-17.885839 -8.477881 -1.622987
-17.953381 -8.439849 -1.626922
-17.927698 -8.522593 -1.259927
-17.881208 -8.431596 -1.254005
-17.812317 -8.462366 -0.904072
-17.778223 -8.420454 -1.008122
-17.884037 -8.469241 -0.779991
-17.875237 -8.525076 -0.544984
-17.794346 -8.490194 -0.661084
-17.961763 -8.510937 -0.414892
-17.710644 -8.543960 -0.289162
-17.992559 -8.523756 -0.191854
-17.730230 -8.505867 -0.187151
-17.938761 -8.547676 -0.049907
-17.929766 -8.577495 0.203092
-17.901928 -8.455413 0.298026
-17.848598 -8.547346 0.438993
-17.926041 -8.514227 0.543070
-17.749632 -8.541199 0.692881
-17.898014 -8.530055 0.791043
-17.752470 -8.531123 0.787882
-17.852287 -8.565985 0.919003
-18.232643 6.286767 -0.417982
-18.074411 6.261829 -0.412846
-18.262041 6.267586 -0.209033
-18.113592 6.277652 -0.205869
-18.120037 6.248450 0.041093
-18.236738 6.218229 0.248940
-18.107985 6.267365 0.160126
-18.276815 6.252037 0.478936
-18.113241 6.261189 0.380114
-18.166761 6.249906 0.709047
-18.265223 6.235762 0.831931
-18.109755 6.244837 0.827100
-18.285000 1.819169 -1.922244
-18.148140 1.918233 -1.906978
-18.028290 2.016292 -1.894731
-18.066982 1.935520 0.157131
-18.055595 1.893263 0.455090
-18.166439 1.825012 0.675890
-18.284002 1.909879 0.793873
-18.030109 1.995015 0.786244
-18.120033 -6.426797 -2.068330
-18.125895 -6.320484 -1.695356
-18.085184 -6.435960 -0.981365
-18.188232 -8.386658 -1.523677
-18.218681 -8.381428 0.073356
-18.272341 -8.470448 -1.280559
-18.060652 -8.472267 -0.916793
-18.168194 -8.451220 -0.921680
-18.237917 -8.457093 -0.795601
-18.273647 -8.463897 -0.557559
-18.050680 -8.504090 -0.671795
-18.297287 -8.404969 -0.679550
-18.258074 -8.553725 -0.301551
-18.084524 -8.544799 -0.297746
-18.263645 -8.506635 -0.196558
-18.132105 -8.517694 -0.193701
-18.231159 -8.421634 -0.195618
-18.206860 -8.532556 -0.052613
-18.057089 -8.517524 0.074216
-18.062311 -8.569432 0.203237
-18.182009 -8.443284 0.299334
-18.123690 -8.536219 0.441296
-18.288036 -8.545946 0.704481
-18.053820 -8.538172 0.545219
-18.230547 -8.448956 0.702389
-18.281866 -8.530872 0.801470
-18.027554 -8.519992 0.794184
-18.237377 -8.439878 0.799394
-18.128365 -8.553850 0.927306
-18.486088 6.297760 -0.551231
-18.571543 6.278622 -0.428339
-18.433502 6.263511 -0.212213
-18.473698 6.267389 -0.079250
